# .PCD v0.7 - Point Cloud Data file format
VERSION 0.7
FIELDS x y z
SIZE 4 4 4
TYPE F F F
COUNT 1 1 1
WIDTH 1416
HEIGHT 1
VIEWPOINT 0 0 0 1 0 0 0
POINTS 1416
DATA ascii
0.024211725 0.28355807 0.33200002
0.025081629 0.28441218 0.333
0.02587861 0.28441218 0.333
0.026675591 0.28441218 0.333
0.027472569 0.28441218 0.333
0.028354444 0.28526628 0.33400002
0.029241102 0.28612036 0.33500001
0.030042868 0.28612036 0.33500001
0.030936709 0.28697446 0.33600003
0.03174087 0.28697446 0.33600003
0.03254503 0.28697446 0.33600003
0.033349186 0.28697446 0.33600003
0.034254994 0.28782853 0.33700001
0.035165589 0.28868264 0.33800003
0.035974536 0.28868264 0.33800003
0.036783483 0.28868264 0.33800003
0.037592426 0.28868264 0.33800003
0.038514987 0.28953671 0.33900002
0.039326325 0.28953671 0.33900002
0.040256064 0.29039079 0.34
0.041069798 0.29039079 0.34
0.04200672 0.29124489 0.34100002
0.042822842 0.29124489 0.34100002
0.043638971 0.29124489 0.34100002
0.044585463 0.29209897 0.34200001
0.045403983 0.29209897 0.34200001
0.046357661 0.29295307 0.34300002
0.04717857 0.29295307 0.34300002
0.047999483 0.29295307 0.34300002
0.048962727 0.29380718 0.34400001
0.049786035 0.29380718 0.34400001
0.050609343 0.29380718 0.34400001
0.051432647 0.29380718 0.34400001
0.052255951 0.29380718 0.34400001
0.053079259 0.29380718 0.34400001
0.053902566 0.29380718 0.34400001
0.054725874 0.29380718 0.34400001
0.070944659 0.3185758 0.37300003
0.071837373 0.3185758 0.37300003
0.072730087 0.3185758 0.37300003
0.073820174 0.31942987 0.37400001
0.074715279 0.31942987 0.37400001
0.075610392 0.31942987 0.37400001
0.076505497 0.31942987 0.37400001
0.077400602 0.31942987 0.37400001
0.078295708 0.31942987 0.37400001
0.079190813 0.31942987 0.37400001
0.080085918 0.31942987 0.37400001
0.080981031 0.31942987 0.37400001
0.081876136 0.31942987 0.37400001
0.082771234 0.31942987 0.37400001
0.083666347 0.31942987 0.37400001
0.084561452 0.31942987 0.37400001
0.085456558 0.31942987 0.37400001
0.08635167 0.31942987 0.37400001
0.087246768 0.31942987 0.37400001
0.08837755 0.32028398 0.37500003
0.089275055 0.32028398 0.37500003
0.090172552 0.32028398 0.37500003
0.091070056 0.32028398 0.37500003
0.091967553 0.32028398 0.37500003
0.09286505 0.32028398 0.37500003
0.093762547 0.32028398 0.37500003
0.094660051 0.32028398 0.37500003
0.095557548 0.32028398 0.37500003
0.096455052 0.32028398 0.37500003
0.09761215 0.32113808 0.37600002
0.098512046 0.32113808 0.37600002
0.099411942 0.32113808 0.37600002
0.10031184 0.32113808 0.37600002
0.10121173 0.32113808 0.37600002
0.10211162 0.32113808 0.37600002
0.1030115 0.32113808 0.37600002
0.1039114 0.32113808 0.37600002
0.1048113 0.32113808 0.37600002
0.10571119 0.32113808 0.37600002
0.10661108 0.32113808 0.37600002
0.10751098 0.32113808 0.37600002
0.10841087 0.32113808 0.37600002
0.10931076 0.32113808 0.37600002
0.11021066 0.32113808 0.37600002
0.11111055 0.32113808 0.37600002
0.11201043 0.32113808 0.37600002
0.11291033 0.32113808 0.37600002
0.11381023 0.32113808 0.37600002
0.11471011 0.32113808 0.37600002
0.11561001 0.32113808 0.37600002
0.11650991 0.32113808 0.37600002
0.1174098 0.32113808 0.37600002
-0.0604055 0.31090367 0.36300001
-0.059536718 0.31090367 0.36300001
-0.058667939 0.31090367 0.36300001
-0.057799164 0.31090367 0.36300001
-0.056930382 0.31090367 0.36300001
-0.056061603 0.31090367 0.36300001
-0.055192821 0.31090367 0.36300001
-0.054324042 0.31090367 0.36300001
-0.053455267 0.31090367 0.36300001
-0.052586485 0.31090367 0.36300001
-0.051717706 0.31090367 0.36300001
-0.050848924 0.31090367 0.36300001
-0.049980141 0.31090367 0.36300001
-0.049111366 0.31090367 0.36300001
-0.048242588 0.31090367 0.36300001
-0.03686006 0.2834962 0.33100003
-0.03606787 0.2834962 0.33100003
-0.035275675 0.2834962 0.33100003
-0.034483481 0.2834962 0.33100003
-0.033691291 0.2834962 0.33100003
-0.032899097 0.2834962 0.33100003
-0.032106906 0.2834962 0.33100003
-0.031314712 0.2834962 0.33100003
-0.030522518 0.2834962 0.33100003
-0.029730326 0.2834962 0.33100003
-0.028850704 0.28263971 0.33000001
-0.028060906 0.28263971 0.33000001
-0.027271105 0.28263971 0.33000001
-0.026481304 0.28263971 0.33000001
-0.025691506 0.28263971 0.33000001
-0.024901705 0.28263971 0.33000001
-0.024111908 0.28263971 0.33000001
-0.023251435 0.28178322 0.32900003
-0.022464028 0.28178322 0.32900003
-0.021676622 0.28178322 0.32900003
-0.020825721 0.28092673 0.32800001
-0.020040708 0.28092673 0.32800001
-0.019255696 0.28092673 0.32800001
-0.018470682 0.28092673 0.32800001
-0.017631751 0.28007028 0.32700002
-0.016849132 0.28007028 0.32700002
-0.016066512 0.28007028 0.32700002
-0.015283892 0.28007028 0.32700002
-0.014501273 0.28007028 0.32700002
-0.013718653 0.28007028 0.32700002
-0.012936033 0.28007028 0.32700002
-0.012153413 0.28007028 0.32700002
-0.011370794 0.28007028 0.32700002
-0.010555794 0.27921376 0.32600001
-0.0097755678 0.27921376 0.32600001
-0.0089953411 0.27921376 0.32600001
-0.0082151154 0.27921376 0.32600001
-0.0074348883 0.27921376 0.32600001
-0.0066546625 0.27921376 0.32600001
-0.0058744363 0.27921376 0.32600001
-0.0050785835 0.2783573 0.32500002
-0.0043007508 0.2783573 0.32500002
-0.0035229179 0.2783573 0.32500002
-0.0027450847 0.2783573 0.32500002
-0.0019672518 0.2783573 0.32500002
-0.0011930786 0.27921376 0.32600001
-0.00041285227 0.27921376 0.32600001
0.00036737398 0.27921376 0.32600001
0.0011476002 0.27921376 0.32600001
0.0019278266 0.27921376 0.32600001
0.0027080528 0.27921376 0.32600001
0.0034882792 0.27921376 0.32600001
0.0042685056 0.27921376 0.32600001
0.0050642188 0.28007028 0.32700002
0.0058468385 0.28007028 0.32700002
0.0066294577 0.28007028 0.32700002
0.0074120779 0.28007028 0.32700002
0.0081946971 0.28007028 0.32700002
0.0089773173 0.28007028 0.32700002
0.0097599365 0.28007028 0.32700002
0.010542556 0.28007028 0.32700002
0.011359809 0.28092673 0.32800001
0.012144823 0.28092673 0.32800001
0.012929835 0.28092673 0.32800001
0.013714848 0.28092673 0.32800001
0.014499861 0.28092673 0.32800001
0.015331474 0.28178322 0.32900003
0.016118882 0.28178322 0.32900003
0.016906288 0.28178322 0.32900003
0.017693695 0.28178322 0.32900003
0.018537274 0.28263971 0.33000001
0.019327072 0.28263971 0.33000001
0.020116871 0.28263971 0.33000001
0.020906672 0.28263971 0.33000001
0.02176222 0.2834962 0.33100003
0.022554414 0.2834962 0.33100003
0.023417138 0.28435269 0.33200002
0.024211725 0.28435269 0.33200002
0.025081629 0.28520915 0.333
0.02587861 0.28520915 0.333
0.026755698 0.28606564 0.33400002
0.027555071 0.28606564 0.33400002
0.028439337 0.28692213 0.33500001
0.029241102 0.28692213 0.33500001
0.030132551 0.28777862 0.33600003
0.030936709 0.28777862 0.33600003
0.03174087 0.28777862 0.33600003
0.032641888 0.2886351 0.33700001
0.033448439 0.2886351 0.33700001
0.034356643 0.28949159 0.33800003
0.035165589 0.28949159 0.33800003
0.035974536 0.28949159 0.33800003
0.036892306 0.29034808 0.33900002
0.037703644 0.29034808 0.33900002
0.038514987 0.29034808 0.33900002
0.039326325 0.29034808 0.33900002
0.040256064 0.29120454 0.34
0.041069798 0.29120454 0.34
0.04200672 0.29206103 0.34100002
0.042822842 0.29206103 0.34100002
0.043638971 0.29206103 0.34100002
0.044585463 0.29291752 0.34200001
0.045403983 0.29291752 0.34200001
0.046357661 0.29377401 0.34300002
0.04717857 0.29377401 0.34300002
0.048139419 0.2946305 0.34400001
0.048962727 0.2946305 0.34400001
0.049786035 0.2946305 0.34400001
0.050609343 0.2946305 0.34400001
0.051432647 0.2946305 0.34400001
0.052255951 0.2946305 0.34400001
0.053079259 0.2946305 0.34400001
0.070944659 0.31946853 0.37300003
0.071837373 0.31946853 0.37300003
0.072730087 0.31946853 0.37300003
0.073820174 0.32032502 0.37400001
0.074715279 0.32032502 0.37400001
0.075610392 0.32032502 0.37400001
0.076505497 0.32032502 0.37400001
0.077400602 0.32032502 0.37400001
0.078295708 0.32032502 0.37400001
0.079190813 0.32032502 0.37400001
0.080085918 0.32032502 0.37400001
0.080981031 0.32032502 0.37400001
0.081876136 0.32032502 0.37400001
0.082771234 0.32032502 0.37400001
0.083666347 0.32032502 0.37400001
0.084561452 0.32032502 0.37400001
0.085456558 0.32032502 0.37400001
0.08635167 0.32032502 0.37400001
0.087246768 0.32032502 0.37400001
0.08837755 0.32118151 0.37500003
0.089275055 0.32118151 0.37500003
0.090172552 0.32118151 0.37500003
0.091070056 0.32118151 0.37500003
0.091967553 0.32118151 0.37500003
0.09286505 0.32118151 0.37500003
0.093762547 0.32118151 0.37500003
0.094660051 0.32118151 0.37500003
0.095557548 0.32118151 0.37500003
0.096455052 0.32118151 0.37500003
0.09761215 0.32203797 0.37600002
0.098512046 0.32203797 0.37600002
0.099411942 0.32203797 0.37600002
0.10031184 0.32203797 0.37600002
0.10121173 0.32203797 0.37600002
0.10211162 0.32203797 0.37600002
0.1030115 0.32203797 0.37600002
0.1039114 0.32203797 0.37600002
0.1048113 0.32203797 0.37600002
0.10571119 0.32203797 0.37600002
0.10661108 0.32203797 0.37600002
0.10751098 0.32203797 0.37600002
0.10841087 0.32203797 0.37600002
0.10931076 0.32203797 0.37600002
0.11021066 0.32203797 0.37600002
0.11111055 0.32203797 0.37600002
0.11201043 0.32203797 0.37600002
0.11291033 0.32203797 0.37600002
0.11381023 0.32203797 0.37600002
0.11471011 0.32203797 0.37600002
0.11561001 0.32203797 0.37600002
0.11650991 0.32203797 0.37600002
0.1174098 0.32203797 0.37600002
-0.0604055 0.31177244 0.36300001
-0.059536718 0.31177244 0.36300001
-0.058667939 0.31177244 0.36300001
-0.057799164 0.31177244 0.36300001
-0.056930382 0.31177244 0.36300001
-0.056061603 0.31177244 0.36300001
-0.055192821 0.31177244 0.36300001
-0.054324042 0.31177244 0.36300001
-0.053455267 0.31177244 0.36300001
-0.052586485 0.31177244 0.36300001
-0.051717706 0.31177244 0.36300001
-0.050848924 0.31177244 0.36300001
-0.049980141 0.31177244 0.36300001
-0.049111366 0.31177244 0.36300001
-0.048242588 0.31177244 0.36300001
-0.047373805 0.31177244 0.36300001
-0.046505027 0.31177244 0.36300001
-0.03686006 0.28428841 0.33100003
-0.03606787 0.28428841 0.33100003
-0.035275675 0.28428841 0.33100003
-0.034483481 0.28428841 0.33100003
-0.033691291 0.28428841 0.33100003
-0.032899097 0.28428841 0.33100003
-0.032106906 0.28428841 0.33100003
-0.031314712 0.28428841 0.33100003
-0.030522518 0.28428841 0.33100003
-0.029730326 0.28428841 0.33100003
-0.028850704 0.2834295 0.33000001
-0.028060906 0.2834295 0.33000001
-0.027271105 0.2834295 0.33000001
-0.026481304 0.2834295 0.33000001
-0.025691506 0.2834295 0.33000001
-0.024901705 0.2834295 0.33000001
-0.024111908 0.2834295 0.33000001
-0.023251435 0.28257063 0.32900003
-0.022464028 0.28257063 0.32900003
-0.021676622 0.28257063 0.32900003
-0.020825721 0.28171176 0.32800001
-0.020040708 0.28171176 0.32800001
-0.019255696 0.28171176 0.32800001
-0.018470682 0.28171176 0.32800001
-0.017631751 0.28085288 0.32700002
-0.016849132 0.28085288 0.32700002
-0.016066512 0.28085288 0.32700002
-0.015283892 0.28085288 0.32700002
-0.014501273 0.28085288 0.32700002
-0.013718653 0.28085288 0.32700002
-0.012936033 0.28085288 0.32700002
-0.012153413 0.28085288 0.32700002
-0.011370794 0.28085288 0.32700002
-0.010555794 0.27999398 0.32600001
-0.0097755678 0.27999398 0.32600001
-0.0089953411 0.27999398 0.32600001
-0.0082151154 0.27999398 0.32600001
-0.0074348883 0.27999398 0.32600001
-0.0066546625 0.27999398 0.32600001
-0.0058744363 0.27999398 0.32600001
-0.0050785835 0.27913511 0.32500002
-0.0043007508 0.27913511 0.32500002
-0.0035229179 0.27913511 0.32500002
-0.0027450847 0.27913511 0.32500002
-0.0019672518 0.27913511 0.32500002
-0.0011930786 0.27999398 0.32600001
-0.00041285227 0.27999398 0.32600001
0.00036737398 0.27999398 0.32600001
0.0011476002 0.27999398 0.32600001
0.0019278266 0.27999398 0.32600001
0.0027080528 0.27999398 0.32600001
0.0034882792 0.27999398 0.32600001
0.0042685056 0.27999398 0.32600001
0.0050642188 0.28085288 0.32700002
0.0058468385 0.28085288 0.32700002
0.0066294577 0.28085288 0.32700002
0.0074120779 0.28085288 0.32700002
0.0081946971 0.28085288 0.32700002
0.0089773173 0.28085288 0.32700002
0.0097599365 0.28085288 0.32700002
0.010542556 0.28085288 0.32700002
0.011359809 0.28171176 0.32800001
0.012144823 0.28171176 0.32800001
0.012929835 0.28171176 0.32800001
0.013714848 0.28171176 0.32800001
0.014499861 0.28171176 0.32800001
0.015331474 0.28257063 0.32900003
0.016118882 0.28257063 0.32900003
0.016906288 0.28257063 0.32900003
0.017693695 0.28257063 0.32900003
0.018537274 0.2834295 0.33000001
0.019327072 0.2834295 0.33000001
0.020116871 0.2834295 0.33000001
0.020906672 0.2834295 0.33000001
0.02176222 0.28428841 0.33100003
0.022554414 0.28428841 0.33100003
0.023417138 0.28514725 0.33200002
0.024211725 0.28514725 0.33200002
0.025081629 0.28600612 0.333
0.02587861 0.28600612 0.333
0.026755698 0.28686503 0.33400002
0.027555071 0.28686503 0.33400002
0.028439337 0.28772387 0.33500001
0.029241102 0.28772387 0.33500001
0.030132551 0.28858277 0.33600003
0.030936709 0.28858277 0.33600003
0.03174087 0.28858277 0.33600003
0.032641888 0.28944165 0.33700001
0.033448439 0.28944165 0.33700001
0.034356643 0.29030052 0.33800003
0.035165589 0.29030052 0.33800003
0.035974536 0.29030052 0.33800003
0.036892306 0.29115939 0.33900002
0.037703644 0.29115939 0.33900002
0.038514987 0.29115939 0.33900002
0.039326325 0.29115939 0.33900002
0.040256064 0.29201826 0.34
0.041069798 0.29201826 0.34
0.04200672 0.29287717 0.34100002
0.042822842 0.29287717 0.34100002
0.043638971 0.29287717 0.34100002
0.044585463 0.29373601 0.34200001
0.045403983 0.29373601 0.34200001
0.046357661 0.29459491 0.34300002
0.04717857 0.29459491 0.34300002
0.047999483 0.29459491 0.34300002
0.048962727 0.29545379 0.34400001
0.049786035 0.29545379 0.34400001
0.050609343 0.29545379 0.34400001
0.051432647 0.29545379 0.34400001
0.052255951 0.29545379 0.34400001
0.053079259 0.29545379 0.34400001
0.070754461 0.31950235 0.37200001
0.071644776 0.31950235 0.37200001
0.072730087 0.32036123 0.37300003
0.0736228 0.32036123 0.37300003
0.074515514 0.32036123 0.37300003
0.075408228 0.32036123 0.37300003
0.076300941 0.32036123 0.37300003
0.077193655 0.32036123 0.37300003
0.078086361 0.32036123 0.37300003
0.078979075 0.32036123 0.37300003
0.079871789 0.32036123 0.37300003
0.080764502 0.32036123 0.37300003
0.081657216 0.32036123 0.37300003
0.08254993 0.32036123 0.37300003
0.083442643 0.32036123 0.37300003
0.084335357 0.32036123 0.37300003
0.085228071 0.32036123 0.37300003
0.086120784 0.32036123 0.37300003
0.08701349 0.32036123 0.37300003
0.088141873 0.3212201 0.37400001
0.089036986 0.3212201 0.37400001
0.089932092 0.3212201 0.37400001
0.090827197 0.3212201 0.37400001
0.091722302 0.3212201 0.37400001
0.092617407 0.3212201 0.37400001
0.093512513 0.3212201 0.37400001
0.094407618 0.3212201 0.37400001
0.095302723 0.3212201 0.37400001
0.096197829 0.3212201 0.37400001
0.097092941 0.3212201 0.37400001
0.098250054 0.322079 0.37500003
0.099147551 0.322079 0.37500003
0.10004506 0.322079 0.37500003
0.10094255 0.322079 0.37500003
0.10184006 0.322079 0.37500003
0.10273755 0.322079 0.37500003
0.10363504 0.322079 0.37500003
0.10453255 0.322079 0.37500003
0.10543004 0.322079 0.37500003
0.10632755 0.322079 0.37500003
0.10722505 0.322079 0.37500003
0.10812255 0.322079 0.37500003
0.10902005 0.322079 0.37500003
0.10991755 0.322079 0.37500003
0.11051954 0.3212201 0.37400001
0.11141463 0.3212201 0.37400001
0.11230974 0.3212201 0.37400001
0.11320485 0.3212201 0.37400001
0.11409996 0.3212201 0.37400001
0.11499506 0.3212201 0.37400001
0.11620004 0.322079 0.37500003
0.11709754 0.322079 0.37500003
-0.0604055 0.31264123 0.36300001
-0.059536718 0.31264123 0.36300001
-0.058667939 0.31264123 0.36300001
-0.057799164 0.31264123 0.36300001
-0.056930382 0.31264123 0.36300001
-0.055907164 0.31177998 0.36200002
-0.055040777 0.31177998 0.36200002
-0.05417439 0.31177998 0.36200002
-0.053308006 0.31177998 0.36200002
-0.052441619 0.31177998 0.36200002
-0.051575232 0.31177998 0.36200002
-0.050848924 0.31264123 0.36300001
-0.049980141 0.31264123 0.36300001
-0.049111366 0.31264123 0.36300001
-0.048242588 0.31264123 0.36300001
-0.047373805 0.31264123 0.36300001
-0.046505027 0.31264123 0.36300001
-0.03697142 0.28594187 0.33200002
-0.036176834 0.28594187 0.33200002
-0.035382248 0.28594187 0.33200002
-0.034587659 0.28594187 0.33200002
-0.033793077 0.28594187 0.33200002
-0.032998487 0.28594187 0.33200002
-0.032203905 0.28594187 0.33200002
-0.031314712 0.28508058 0.33100003
-0.030522518 0.28508058 0.33100003
-0.029730326 0.28508058 0.33100003
-0.028938131 0.28508058 0.33100003
-0.028145941 0.28508058 0.33100003
-0.027353747 0.28508058 0.33100003
-0.026481304 0.28421932 0.33000001
-0.025691506 0.28421932 0.33000001
-0.024901705 0.28421932 0.33000001
-0.024111908 0.28421932 0.33000001
-0.023322107 0.28421932 0.33000001
-0.022532307 0.28421932 0.33000001
-0.021742508 0.28421932 0.33000001
-0.020889215 0.28335804 0.32900003
-0.02010181 0.28335804 0.32900003
-0.019314403 0.28335804 0.32900003
-0.018470682 0.28249678 0.32800001
-0.01768567 0.28249678 0.32800001
-0.016900657 0.28249678 0.32800001
-0.016115643 0.28249678 0.32800001
-0.015283892 0.28163549 0.32700002
-0.014501273 0.28163549 0.32700002
-0.013718653 0.28163549 0.32700002
-0.012936033 0.28163549 0.32700002
-0.012153413 0.28163549 0.32700002
-0.011370794 0.28163549 0.32700002
-0.010588174 0.28163549 0.32700002
-0.0098055545 0.28163549 0.32700002
-0.0090229344 0.28163549 0.32700002
-0.0082403151 0.28163549 0.32700002
-0.0074576954 0.28163549 0.32700002
-0.0066750757 0.28163549 0.32700002
-0.0058744363 0.28077424 0.32600001
-0.0050942097 0.28077424 0.32600001
-0.0043139835 0.28077424 0.32600001
-0.0035337573 0.28077424 0.32600001
-0.0027535311 0.28077424 0.32600001
-0.0019733049 0.28077424 0.32600001
-0.0011930786 0.28077424 0.32600001
-0.00041285227 0.28077424 0.32600001
0.00036850091 0.28163549 0.32700002
0.0011511205 0.28163549 0.32700002
0.0019337403 0.28163549 0.32700002
0.0027163599 0.28163549 0.32700002
0.0034989796 0.28163549 0.32700002
0.0042815991 0.28163549 0.32700002
0.0050642188 0.28163549 0.32700002
0.0058468385 0.28163549 0.32700002
0.0066294577 0.28163549 0.32700002
0.0074120779 0.28163549 0.32700002
0.0081946971 0.28163549 0.32700002
0.0089773173 0.28163549 0.32700002
0.0097599365 0.28163549 0.32700002
0.010574796 0.28249678 0.32800001
0.011359809 0.28249678 0.32800001
0.012144823 0.28249678 0.32800001
0.012969256 0.28335804 0.32900003
0.013756663 0.28335804 0.32900003
0.014544068 0.28335804 0.32900003
0.015331474 0.28335804 0.32900003
0.016118882 0.28335804 0.32900003
0.016906288 0.28335804 0.32900003
0.017693695 0.28335804 0.32900003
0.018537274 0.28421932 0.33000001
0.019327072 0.28421932 0.33000001
0.020116871 0.28421932 0.33000001
0.020906672 0.28421932 0.33000001
0.021827966 0.28594187 0.33200002
0.022622554 0.28594187 0.33200002
0.023417138 0.28594187 0.33200002
0.024284652 0.28680313 0.333
0.025081629 0.28680313 0.333
0.02587861 0.28680313 0.333
0.026755698 0.28766441 0.33400002
0.027555071 0.28766441 0.33400002
0.028439337 0.28852567 0.33500001
0.029241102 0.28852567 0.33500001
0.030132551 0.28938696 0.33600003
0.030936709 0.28938696 0.33600003
0.031835336 0.29024822 0.33700001
0.032738749 0.2911095 0.33800003
0.033547696 0.2911095 0.33800003
0.034356643 0.2911095 0.33800003
0.035165589 0.2911095 0.33800003
0.036080968 0.29197076 0.33900002
0.036892306 0.29197076 0.33900002
0.037703644 0.29197076 0.33900002
0.038628597 0.29283202 0.34
0.039442331 0.29283202 0.34
0.040374465 0.2936933 0.34100002
0.041190594 0.2936933 0.34100002
0.04200672 0.2936933 0.34100002
0.042948421 0.29455456 0.34200001
0.043766942 0.29455456 0.34200001
0.044585463 0.29455456 0.34200001
0.045403983 0.29455456 0.34200001
0.046357661 0.29541585 0.34300002
0.04717857 0.29541585 0.34300002
0.047999483 0.29541585 0.34300002
0.048962727 0.29627711 0.34400001
0.049786035 0.29627711 0.34400001
0.050609343 0.29627711 0.34400001
0.051432647 0.29627711 0.34400001
0.052255951 0.29627711 0.34400001
0.053079259 0.29627711 0.34400001
0.054059263 0.29713839 0.34500003
0.068788402 0.31953141 0.37100002
0.069676332 0.31953141 0.37100002
0.070564263 0.31953141 0.37100002
0.071452186 0.31953141 0.37100002
0.072340116 0.31953141 0.37100002
0.073228039 0.31953141 0.37100002
0.074115962 0.31953141 0.37100002
0.075206056 0.32039267 0.37200001
0.076096378 0.32039267 0.37200001
0.0769867 0.32039267 0.37200001
0.077877015 0.32039267 0.37200001
0.078767329 0.32039267 0.37200001
0.079657651 0.32039267 0.37200001
0.080764502 0.32125396 0.37300003
0.081657216 0.32125396 0.37300003
0.08254993 0.32125396 0.37300003
0.083442643 0.32125396 0.37300003
0.084335357 0.32125396 0.37300003
0.085228071 0.32125396 0.37300003
0.086120784 0.32125396 0.37300003
0.08701349 0.32125396 0.37300003
0.087906204 0.32125396 0.37300003
0.088798918 0.32125396 0.37300003
0.089691631 0.32125396 0.37300003
0.090584345 0.32125396 0.37300003
0.091477059 0.32125396 0.37300003
0.092369772 0.32125396 0.37300003
0.093262479 0.32125396 0.37300003
0.094155192 0.32125396 0.37300003
0.095047906 0.32125396 0.37300003
0.096197829 0.32211521 0.37400001
0.097092941 0.32211521 0.37400001
0.097988047 0.32211521 0.37400001
0.098883152 0.32211521 0.37400001
0.099778257 0.32211521 0.37400001
0.10067337 0.32211521 0.37400001
0.10156848 0.32211521 0.37400001
0.10246357 0.32211521 0.37400001
0.10335868 0.32211521 0.37400001
0.10425378 0.32211521 0.37400001
0.1051489 0.32211521 0.37400001
0.106044 0.32211521 0.37400001
0.10693911 0.32211521 0.37400001
0.10783421 0.32211521 0.37400001
0.10872933 0.32211521 0.37400001
0.10962443 0.32211521 0.37400001
0.11051954 0.32211521 0.37400001
0.11141463 0.32211521 0.37400001
0.11230974 0.32211521 0.37400001
0.11320485 0.32211521 0.37400001
0.11409996 0.32211521 0.37400001
0.11499506 0.32211521 0.37400001
0.11589017 0.32211521 0.37400001
0.11678528 0.32211521 0.37400001
-0.0604055 0.31351 0.36300001
-0.059536718 0.31351 0.36300001
-0.058667939 0.31351 0.36300001
-0.057799164 0.31351 0.36300001
-0.056930382 0.31351 0.36300001
-0.055907164 0.31264636 0.36200002
-0.055040777 0.31264636 0.36200002
-0.05417439 0.31264636 0.36200002
-0.053308006 0.31264636 0.36200002
-0.052441619 0.31264636 0.36200002
-0.051575232 0.31264636 0.36200002
-0.050848924 0.31351 0.36300001
-0.049111366 0.31351 0.36300001
-0.048242588 0.31351 0.36300001
-0.047373805 0.31351 0.36300001
-0.046505027 0.31351 0.36300001
-0.03697142 0.28673643 0.33200002
-0.036176834 0.28673643 0.33200002
-0.035382248 0.28673643 0.33200002
-0.034587659 0.28673643 0.33200002
-0.033793077 0.28673643 0.33200002
-0.032998487 0.28673643 0.33200002
-0.032203905 0.28673643 0.33200002
-0.031409316 0.28673643 0.33200002
-0.03061473 0.28673643 0.33200002
-0.029820144 0.28673643 0.33200002
-0.028938131 0.28587279 0.33100003
-0.028145941 0.28587279 0.33100003
-0.027353747 0.28587279 0.33100003
-0.026561553 0.28587279 0.33100003
-0.025691506 0.28500912 0.33000001
-0.024901705 0.28500912 0.33000001
-0.024111908 0.28500912 0.33000001
-0.023322107 0.28500912 0.33000001
-0.022532307 0.28500912 0.33000001
-0.021742508 0.28500912 0.33000001
-0.020952707 0.28500912 0.33000001
-0.020162908 0.28500912 0.33000001
-0.019314403 0.28414544 0.32900003
-0.018526997 0.28414544 0.32900003
-0.01773959 0.28414544 0.32900003
-0.016952185 0.28414544 0.32900003
-0.016115643 0.28328177 0.32800001
-0.015330631 0.28328177 0.32800001
-0.014545619 0.28328177 0.32800001
-0.013760606 0.28328177 0.32800001
-0.012936033 0.28241813 0.32700002
-0.012153413 0.28241813 0.32700002
-0.011370794 0.28241813 0.32700002
-0.010588174 0.28241813 0.32700002
-0.0098055545 0.28241813 0.32700002
-0.0090229344 0.28241813 0.32700002
-0.0082403151 0.28241813 0.32700002
-0.0074576954 0.28241813 0.32700002
-0.0066750757 0.28241813 0.32700002
-0.0058924565 0.28241813 0.32700002
-0.0051098363 0.28241813 0.32700002
-0.0043272171 0.28241813 0.32700002
-0.0035445972 0.28241813 0.32700002
-0.0027619775 0.28241813 0.32700002
-0.001979358 0.28241813 0.32700002
-0.0011967383 0.28241813 0.32700002
-0.00041411872 0.28241813 0.32700002
0.00036850091 0.28241813 0.32700002
0.0011511205 0.28241813 0.32700002
0.0019337403 0.28241813 0.32700002
0.0027163599 0.28241813 0.32700002
0.0034989796 0.28241813 0.32700002
0.0042815991 0.28241813 0.32700002
0.0050642188 0.28241813 0.32700002
0.0058468385 0.28241813 0.32700002
0.0066497312 0.28328177 0.32800001
0.0074347444 0.28328177 0.32800001
0.0082197571 0.28328177 0.32800001
0.0090047708 0.28328177 0.32800001
0.0097897835 0.28328177 0.32800001
0.010574796 0.28328177 0.32800001
0.011359809 0.28328177 0.32800001
0.01218185 0.28414544 0.32900003
0.012969256 0.28414544 0.32900003
0.013756663 0.28414544 0.32900003
0.014588275 0.28500912 0.33000001
0.015378074 0.28500912 0.33000001
0.016167875 0.28500912 0.33000001
0.016957674 0.28500912 0.33000001
0.017747473 0.28500912 0.33000001
0.018537274 0.28500912 0.33000001
0.01938564 0.28587279 0.33100003
0.020177834 0.28587279 0.33100003
0.021033378 0.28673643 0.33200002
0.021827966 0.28673643 0.33200002
0.022690693 0.2876001 0.333
0.02348767 0.2876001 0.333
0.024284652 0.2876001 0.333
0.025081629 0.2876001 0.333
0.025956325 0.28846377 0.33400002
0.026835805 0.28932741 0.33500001
0.027637569 0.28932741 0.33500001
0.028524231 0.29019108 0.33600003
0.029328389 0.29019108 0.33600003
0.03022223 0.29105476 0.33700001
0.031028781 0.29105476 0.33700001
0.031929802 0.29191843 0.33800003
0.032738749 0.29191843 0.33800003
0.033547696 0.29191843 0.33800003
0.034458287 0.29278207 0.33900002
0.035269625 0.29278207 0.33900002
0.036080968 0.29278207 0.33900002
0.036892306 0.29278207 0.33900002
0.037814863 0.29364574 0.34
0.038742214 0.29450941 0.34100002
0.03955834 0.29450941 0.34100002
0.040374465 0.29450941 0.34100002
0.041190594 0.29450941 0.34100002
0.042129904 0.29537305 0.34200001
0.042948421 0.29537305 0.34200001
0.043766942 0.29537305 0.34200001
0.044715833 0.29623675 0.34300002
0.045536745 0.29623675 0.34300002
0.046492811 0.29710039 0.34400001
0.047316115 0.29710039 0.34400001
0.048139419 0.29710039 0.34400001
0.048962727 0.29710039 0.34400001
0.049786035 0.29710039 0.34400001
0.050609343 0.29710039 0.34400001
0.051582161 0.29796407 0.34500003
0.052407861 0.29796407 0.34500003
0.053233564 0.29796407 0.34500003
0.054059263 0.29796407 0.34500003
0.068788402 0.32041934 0.37100002
0.069676332 0.32041934 0.37100002
0.070564263 0.32041934 0.37100002
0.071452186 0.32041934 0.37100002
0.072340116 0.32041934 0.37100002
0.073228039 0.32041934 0.37100002
0.074115962 0.32041934 0.37100002
0.075206056 0.32128298 0.37200001
0.076096378 0.32128298 0.37200001
0.0769867 0.32128298 0.37200001
0.077877015 0.32128298 0.37200001
0.078767329 0.32128298 0.37200001
0.079657651 0.32128298 0.37200001
0.080764502 0.32214665 0.37300003
0.081657216 0.32214665 0.37300003
0.08254993 0.32214665 0.37300003
0.083442643 0.32214665 0.37300003
0.084335357 0.32214665 0.37300003
0.085228071 0.32214665 0.37300003
0.086120784 0.32214665 0.37300003
0.08701349 0.32214665 0.37300003
0.087906204 0.32214665 0.37300003
0.088798918 0.32214665 0.37300003
0.089691631 0.32214665 0.37300003
0.090584345 0.32214665 0.37300003
0.091477059 0.32214665 0.37300003
0.092369772 0.32214665 0.37300003
0.093262479 0.32214665 0.37300003
0.094155192 0.32214665 0.37300003
0.095047906 0.32214665 0.37300003
0.096197829 0.32301033 0.37400001
0.097092941 0.32301033 0.37400001
0.097988047 0.32301033 0.37400001
0.098883152 0.32301033 0.37400001
0.099778257 0.32301033 0.37400001
0.10067337 0.32301033 0.37400001
0.10156848 0.32301033 0.37400001
0.10246357 0.32301033 0.37400001
0.10335868 0.32301033 0.37400001
0.10425378 0.32301033 0.37400001
0.1051489 0.32301033 0.37400001
0.106044 0.32301033 0.37400001
0.10693911 0.32301033 0.37400001
0.10783421 0.32301033 0.37400001
0.10872933 0.32301033 0.37400001
0.10962443 0.32301033 0.37400001
0.11051954 0.32301033 0.37400001
0.11141463 0.32301033 0.37400001
0.11230974 0.32301033 0.37400001
0.11320485 0.32301033 0.37400001
0.11409996 0.32301033 0.37400001
0.11499506 0.32301033 0.37400001
0.11589017 0.32301033 0.37400001
0.11678528 0.32301033 0.37400001
-0.06007269 0.31264672 0.36100003
-0.059208699 0.31264672 0.36100003
-0.058344703 0.31264672 0.36100003
-0.057480715 0.31264672 0.36100003
-0.05661672 0.31264672 0.36100003
-0.055752728 0.31264672 0.36100003
-0.054888733 0.31264672 0.36100003
-0.054024737 0.31264672 0.36100003
-0.053160749 0.31264672 0.36100003
-0.052441619 0.31351274 0.36200002
-0.051575232 0.31351274 0.36200002
-0.050708845 0.31351274 0.36200002
-0.049842458 0.31351274 0.36200002
-0.048976075 0.31351274 0.36200002
-0.048109688 0.31351274 0.36200002
-0.047243301 0.31351274 0.36200002
-0.046376914 0.31351274 0.36200002
-0.045510527 0.31351274 0.36200002
-0.03697142 0.28753102 0.33200002
-0.036176834 0.28753102 0.33200002
-0.035382248 0.28753102 0.33200002
-0.034587659 0.28753102 0.33200002
-0.033793077 0.28753102 0.33200002
-0.032998487 0.28753102 0.33200002
-0.032203905 0.28753102 0.33200002
-0.031409316 0.28753102 0.33200002
-0.03061473 0.28753102 0.33200002
-0.029820144 0.28753102 0.33200002
-0.028938131 0.28666499 0.33100003
-0.028145941 0.28666499 0.33100003
-0.027353747 0.28666499 0.33100003
-0.026561553 0.28666499 0.33100003
-0.025691506 0.28579891 0.33000001
-0.024901705 0.28579891 0.33000001
-0.024111908 0.28579891 0.33000001
-0.023322107 0.28579891 0.33000001
-0.022532307 0.28579891 0.33000001
-0.021742508 0.28579891 0.33000001
-0.020952707 0.28579891 0.33000001
-0.020162908 0.28579891 0.33000001
-0.019314403 0.28493285 0.32900003
-0.018526997 0.28493285 0.32900003
-0.01773959 0.28493285 0.32900003
-0.016952185 0.28493285 0.32900003
-0.016115643 0.2840668 0.32800001
-0.015330631 0.2840668 0.32800001
-0.014545619 0.2840668 0.32800001
-0.013760606 0.2840668 0.32800001
-0.012936033 0.28320074 0.32700002
-0.012153413 0.28320074 0.32700002
-0.011370794 0.28320074 0.32700002
-0.010588174 0.28320074 0.32700002
-0.0098055545 0.28320074 0.32700002
-0.0090229344 0.28320074 0.32700002
-0.0082403151 0.28320074 0.32700002
-0.0074576954 0.28320074 0.32700002
-0.0066750757 0.28320074 0.32700002
-0.0058924565 0.28320074 0.32700002
-0.0051098363 0.28320074 0.32700002
-0.0043272171 0.28320074 0.32700002
-0.0035445972 0.28320074 0.32700002
-0.0027619775 0.28320074 0.32700002
-0.001979358 0.28320074 0.32700002
-0.0011967383 0.28320074 0.32700002
-0.00041411872 0.28320074 0.32700002
0.00036850091 0.28320074 0.32700002
0.0011511205 0.28320074 0.32700002
0.0019337403 0.28320074 0.32700002
0.0027163599 0.28320074 0.32700002
0.0034989796 0.28320074 0.32700002
0.0042815991 0.28320074 0.32700002
0.0050642188 0.28320074 0.32700002
0.0058468385 0.28320074 0.32700002
0.0066497312 0.2840668 0.32800001
0.0074347444 0.2840668 0.32800001
0.0082197571 0.2840668 0.32800001
0.0090047708 0.2840668 0.32800001
0.0097897835 0.2840668 0.32800001
0.010574796 0.2840668 0.32800001
0.011359809 0.2840668 0.32800001
0.01218185 0.28493285 0.32900003
0.012969256 0.28493285 0.32900003
0.013756663 0.28493285 0.32900003
0.014588275 0.28579891 0.33000001
0.015378074 0.28579891 0.33000001
0.016167875 0.28579891 0.33000001
0.016957674 0.28579891 0.33000001
0.017747473 0.28579891 0.33000001
0.018537274 0.28579891 0.33000001
0.01938564 0.28666499 0.33100003
0.020177834 0.28666499 0.33100003
0.021033378 0.28753102 0.33200002
0.021827966 0.28753102 0.33200002
0.022690693 0.28839707 0.333
0.02348767 0.28839707 0.333
0.024284652 0.28839707 0.333
0.025081629 0.28839707 0.333
0.025956325 0.28926316 0.33400002
0.026835805 0.29012918 0.33500001
0.027637569 0.29012918 0.33500001
0.028524231 0.29099527 0.33600003
0.029328389 0.29099527 0.33600003
0.03022223 0.29186133 0.33700001
0.031028781 0.29186133 0.33700001
0.031929802 0.29272738 0.33800003
0.032738749 0.29272738 0.33800003
0.033547696 0.29272738 0.33800003
0.034458287 0.29359344 0.33900002
0.035269625 0.29359344 0.33900002
0.036080968 0.29359344 0.33900002
0.036892306 0.29359344 0.33900002
0.037814863 0.29445949 0.34
0.038742214 0.29532555 0.34100002
0.03955834 0.29532555 0.34100002
0.040374465 0.29532555 0.34100002
0.041190594 0.29532555 0.34100002
0.042129904 0.2961916 0.34200001
0.042948421 0.2961916 0.34200001
0.043766942 0.2961916 0.34200001
0.044715833 0.29705766 0.34300002
0.045536745 0.29705766 0.34300002
0.046492811 0.29792371 0.34400001
0.047316115 0.29792371 0.34400001
0.048139419 0.29792371 0.34400001
0.048962727 0.29792371 0.34400001
0.049786035 0.29792371 0.34400001
0.050609343 0.29792371 0.34400001
0.051582161 0.2987898 0.34500003
0.052407861 0.2987898 0.34500003
0.053233564 0.2987898 0.34500003
0.054059263 0.2987898 0.34500003
0.066831924 0.32044119 0.37
0.067717463 0.32044119 0.37
0.068602987 0.32044119 0.37
0.069488525 0.32044119 0.37
0.070374057 0.32044119 0.37
0.071259588 0.32044119 0.37
0.072145127 0.32044119 0.37
0.073030651 0.32044119 0.37
0.073916189 0.32044119 0.37
0.074801721 0.32044119 0.37
0.075891815 0.32130727 0.37100002
0.076779746 0.32130727 0.37100002
0.077667668 0.32130727 0.37100002
0.078555591 0.32130727 0.37100002
0.079443522 0.32130727 0.37100002
0.080331452 0.32130727 0.37100002
0.081219375 0.32130727 0.37100002
0.082107298 0.32130727 0.37100002
0.082995228 0.32130727 0.37100002
0.083883151 0.32130727 0.37100002
0.084771082 0.32130727 0.37100002
0.085659012 0.32130727 0.37100002
0.086546928 0.32130727 0.37100002
0.087670527 0.32217333 0.37200001
0.088560849 0.32217333 0.37200001
0.089451171 0.32217333 0.37200001
0.090341493 0.32217333 0.37200001
0.091477059 0.32303938 0.37300003
0.092369772 0.32303938 0.37300003
0.093262479 0.32303938 0.37300003
0.094155192 0.32303938 0.37300003
0.095047906 0.32303938 0.37300003
0.09594062 0.32303938 0.37300003
0.096833333 0.32303938 0.37300003
0.097726047 0.32303938 0.37300003
0.098618761 0.32303938 0.37300003
0.099511474 0.32303938 0.37300003
0.10040419 0.32303938 0.37300003
0.1012969 0.32303938 0.37300003
0.10218961 0.32303938 0.37300003
0.10308232 0.32303938 0.37300003
0.10397504 0.32303938 0.37300003
0.10486775 0.32303938 0.37300003
0.10576046 0.32303938 0.37300003
0.10665318 0.32303938 0.37300003
0.10754589 0.32303938 0.37300003
0.1084386 0.32303938 0.37300003
0.10933132 0.32303938 0.37300003
0.11022404 0.32303938 0.37300003
0.11111674 0.32303938 0.37300003
0.11200945 0.32303938 0.37300003
0.11290216 0.32303938 0.37300003
0.11379488 0.32303938 0.37300003
0.11468759 0.32303938 0.37300003
0.11558031 0.32303938 0.37300003
0.11647302 0.32303938 0.37300003
-0.059906282 0.31264222 0.36000001
-0.059044681 0.31264222 0.36000001
-0.058183081 0.31264222 0.36000001
-0.057321485 0.31264222 0.36000001
-0.056459885 0.31264222 0.36000001
-0.055598285 0.31264222 0.36000001
-0.054736685 0.31264222 0.36000001
-0.053875081 0.31264222 0.36000001
-0.053013489 0.31264222 0.36000001
-0.052151889 0.31264222 0.36000001
-0.051432762 0.31351069 0.36100003
-0.050568767 0.31351069 0.36100003
-0.049704775 0.31351069 0.36100003
-0.048840784 0.31351069 0.36100003
-0.047976792 0.31351069 0.36100003
-0.047112796 0.31351069 0.36100003
-0.046248805 0.31351069 0.36100003
-0.045384809 0.31351069 0.36100003
-0.036176834 0.28832561 0.33200002
-0.035382248 0.28832561 0.33200002
-0.034587659 0.28832561 0.33200002
-0.033793077 0.28832561 0.33200002
-0.032998487 0.28832561 0.33200002
-0.032203905 0.28832561 0.33200002
-0.031409316 0.28832561 0.33200002
-0.03061473 0.28832561 0.33200002
-0.029820144 0.28832561 0.33200002
-0.029025557 0.28832561 0.33200002
-0.028230973 0.28832561 0.33200002
-0.027436385 0.28832561 0.33200002
-0.026561553 0.28745717 0.33100003
-0.02576936 0.28745717 0.33100003
-0.024977166 0.28745717 0.33100003
-0.024111908 0.2865887 0.33000001
-0.023322107 0.2865887 0.33000001
-0.022532307 0.2865887 0.33000001
-0.021742508 0.2865887 0.33000001
-0.020952707 0.2865887 0.33000001
-0.020162908 0.2865887 0.33000001
-0.01937311 0.2865887 0.33000001
-0.018526997 0.28572026 0.32900003
-0.01773959 0.28572026 0.32900003
-0.016952185 0.28572026 0.32900003
-0.016164778 0.28572026 0.32900003
-0.015377372 0.28572026 0.32900003
-0.014589965 0.28572026 0.32900003
-0.013760606 0.28485179 0.32800001
-0.012975593 0.28485179 0.32800001
-0.012190579 0.28485179 0.32800001
-0.011405566 0.28485179 0.32800001
-0.010620553 0.28485179 0.32800001
-0.0098355403 0.28485179 0.32800001
-0.0090229344 0.28398335 0.32700002
-0.0082403151 0.28398335 0.32700002
-0.0074576954 0.28398335 0.32700002
-0.0066750757 0.28398335 0.32700002
-0.0058924565 0.28398335 0.32700002
-0.0051098363 0.28398335 0.32700002
-0.0043272171 0.28398335 0.32700002
-0.0035445972 0.28398335 0.32700002
-0.0027619775 0.28398335 0.32700002
-0.001979358 0.28398335 0.32700002
-0.0011967383 0.28398335 0.32700002
-0.00041411872 0.28398335 0.32700002
0.00036850091 0.28398335 0.32700002
0.0011511205 0.28398335 0.32700002
0.0019396538 0.28485179 0.32800001
0.0027246666 0.28485179 0.32800001
0.0035096796 0.28485179 0.32800001
0.0042946925 0.28485179 0.32800001
0.0050797053 0.28485179 0.32800001
0.0058647185 0.28485179 0.32800001
0.0066497312 0.28485179 0.32800001
0.0074347444 0.28485179 0.32800001
0.0082197571 0.28485179 0.32800001
0.0090047708 0.28485179 0.32800001
0.0098196305 0.28572026 0.32900003
0.010607037 0.28572026 0.32900003
0.011394443 0.28572026 0.32900003
0.01218185 0.28572026 0.32900003
0.012969256 0.28572026 0.32900003
0.013798475 0.2865887 0.33000001
0.014588275 0.2865887 0.33000001
0.015378074 0.2865887 0.33000001
0.016167875 0.2865887 0.33000001
0.016957674 0.2865887 0.33000001
0.017747473 0.2865887 0.33000001
0.018593447 0.28745717 0.33100003
0.01938564 0.28745717 0.33100003
0.020238793 0.28832561 0.33200002
0.021033378 0.28832561 0.33200002
0.021827966 0.28832561 0.33200002
0.022690693 0.28919405 0.333
0.02348767 0.28919405 0.333
0.02435758 0.29006252 0.33400002
0.025156951 0.29006252 0.33400002
0.026034037 0.29093096 0.33500001
0.026835805 0.29093096 0.33500001
0.027720071 0.29179943 0.33600003
0.028524231 0.29179943 0.33600003
0.029415675 0.29266787 0.33700001
0.03031191 0.29353634 0.33800003
0.031120855 0.29353634 0.33800003
0.031929802 0.29353634 0.33800003
0.032738749 0.29353634 0.33800003
0.033646949 0.29440477 0.33900002
0.034458287 0.29440477 0.33900002
0.035269625 0.29440477 0.33900002
0.036187399 0.29527321 0.34
0.037001133 0.29527321 0.34
0.037926085 0.29614165 0.34100002
0.038742214 0.29614165 0.34100002
0.03955834 0.29614165 0.34100002
0.040374465 0.29614165 0.34100002
0.041190594 0.29614165 0.34100002
0.042129904 0.29701009 0.34200001
0.042948421 0.29701009 0.34200001
0.043894917 0.29787856 0.34300002
0.044715833 0.29787856 0.34300002
0.045669504 0.298747 0.34400001
0.046492811 0.298747 0.34400001
0.047316115 0.298747 0.34400001
0.048279364 0.29961547 0.34500003
0.049105063 0.29961547 0.34500003
0.049930766 0.29961547 0.34500003
0.050903585 0.30048391 0.34600002
0.051731672 0.30048391 0.34600002
0.052559767 0.30048391 0.34600002
0.053387862 0.30048391 0.34600002
0.0666513 0.32045829 0.36900002
0.067534439 0.32045829 0.36900002
0.068417579 0.32045829 0.36900002
0.069300719 0.32045829 0.36900002
0.070183858 0.32045829 0.36900002
0.071066998 0.32045829 0.36900002
0.071950138 0.32045829 0.36900002
0.073030651 0.32132673 0.37
0.073916189 0.32132673 0.37
0.074801721 0.32132673 0.37
0.075687252 0.32132673 0.37
0.076572791 0.32132673 0.37
0.077458315 0.32132673 0.37
0.078343853 0.32132673 0.37
0.079229385 0.32132673 0.37
0.080114916 0.32132673 0.37
0.081000455 0.32132673 0.37
0.081885979 0.32132673 0.37
0.082771517 0.32132673 0.37
0.083657049 0.32132673 0.37
0.084542587 0.32132673 0.37
0.085428119 0.32132673 0.37
0.08631365 0.32132673 0.37
0.087199181 0.32132673 0.37
0.088322788 0.32219517 0.37100002
0.089210711 0.32219517 0.37100002
0.090098642 0.32219517 0.37100002
0.090986565 0.32219517 0.37100002
0.091874488 0.32219517 0.37100002
0.092762411 0.32219517 0.37100002
0.093650341 0.32219517 0.37100002
0.094538264 0.32219517 0.37100002
0.095683403 0.32306361 0.37200001
0.096573725 0.32306361 0.37200001
0.097464047 0.32306361 0.37200001
0.098354362 0.32306361 0.37200001
0.099244684 0.32306361 0.37200001
0.10013501 0.32306361 0.37200001
0.10102533 0.32306361 0.37200001
0.10191564 0.32306361 0.37200001
0.10280596 0.32306361 0.37200001
0.10369628 0.32306361 0.37200001
0.1045866 0.32306361 0.37200001
0.10547692 0.32306361 0.37200001
0.10636724 0.32306361 0.37200001
0.10725756 0.32306361 0.37200001
0.10814788 0.32306361 0.37200001
0.1090382 0.32306361 0.37200001
0.10992853 0.32306361 0.37200001
0.11081883 0.32306361 0.37200001
0.11170916 0.32306361 0.37200001
0.11259948 0.32306361 0.37200001
0.11348979 0.32306361 0.37200001
0.11468759 0.32393208 0.37300003
0.11558031 0.32393208 0.37300003
0.11647302 0.32393208 0.37300003
-0.059906282 0.3135038 0.36000001
-0.059044681 0.3135038 0.36000001
-0.058183081 0.3135038 0.36000001
-0.057321485 0.3135038 0.36000001
-0.056459885 0.3135038 0.36000001
-0.055598285 0.3135038 0.36000001
-0.054736685 0.3135038 0.36000001
-0.053875081 0.3135038 0.36000001
-0.053013489 0.3135038 0.36000001
-0.052151889 0.3135038 0.36000001
-0.051432762 0.31437469 0.36100003
-0.050568767 0.31437469 0.36100003
-0.049704775 0.31437469 0.36100003
-0.048840784 0.31437469 0.36100003
-0.047976792 0.31437469 0.36100003
-0.047112796 0.31437469 0.36100003
-0.046248805 0.31437469 0.36100003
-0.045384809 0.31437469 0.36100003
-0.035488818 0.28999102 0.333
-0.03469184 0.28999102 0.333
-0.033894859 0.28999102 0.333
-0.033097882 0.28999102 0.333
-0.032203905 0.2891202 0.33200002
-0.031409316 0.2891202 0.33200002
-0.03061473 0.2891202 0.33200002
-0.029820144 0.2891202 0.33200002
-0.029025557 0.2891202 0.33200002
-0.028230973 0.2891202 0.33200002
-0.027436385 0.2891202 0.33200002
-0.026641797 0.2891202 0.33200002
-0.025847213 0.2891202 0.33200002
-0.024977166 0.28824934 0.33100003
-0.024184976 0.28824934 0.33100003
-0.023392782 0.28824934 0.33100003
-0.022600587 0.28824934 0.33100003
-0.021742508 0.28737849 0.33000001
-0.020952707 0.28737849 0.33000001
-0.020162908 0.28737849 0.33000001
-0.01937311 0.28737849 0.33000001
-0.018583309 0.28737849 0.33000001
-0.01779351 0.28737849 0.33000001
-0.017003711 0.28737849 0.33000001
-0.016164778 0.28650767 0.32900003
-0.015377372 0.28650767 0.32900003
-0.014589965 0.28650767 0.32900003
-0.013802559 0.28650767 0.32900003
-0.013015153 0.28650767 0.32900003
-0.012227746 0.28650767 0.32900003
-0.011440339 0.28650767 0.32900003
-0.010620553 0.28563681 0.32800001
-0.0098355403 0.28563681 0.32800001
-0.0090505276 0.28563681 0.32800001
-0.0082655149 0.28563681 0.32800001
-0.0074805012 0.28563681 0.32800001
-0.0066954885 0.28563681 0.32800001
-0.0059104757 0.28563681 0.32800001
-0.0051254625 0.28563681 0.32800001
-0.0043404498 0.28563681 0.32800001
-0.0035554369 0.28563681 0.32800001
-0.0027704239 0.28563681 0.32800001
-0.0019854109 0.28563681 0.32800001
-0.0012003981 0.28563681 0.32800001
-0.00041538512 0.28563681 0.32800001
0.00036962781 0.28563681 0.32800001
0.0011546408 0.28563681 0.32800001
0.0019396538 0.28563681 0.32800001
0.0027329738 0.28650767 0.32900003
0.00352038 0.28650767 0.32900003
0.0043077865 0.28650767 0.32900003
0.0050951927 0.28650767 0.32900003
0.0058825989 0.28650767 0.32900003
0.0066700052 0.28650767 0.32900003
0.0074574118 0.28650767 0.32900003
0.0082448181 0.28650767 0.32900003
0.0090322243 0.28650767 0.32900003
0.0098196305 0.28650767 0.32900003
0.010607037 0.28650767 0.32900003
0.011429076 0.28737849 0.33000001
0.012218877 0.28737849 0.33000001
0.013008676 0.28737849 0.33000001
0.013798475 0.28737849 0.33000001
0.014588275 0.28737849 0.33000001
0.015378074 0.28737849 0.33000001
0.016216869 0.28824934 0.33100003
0.017009063 0.28824934 0.33100003
0.017801255 0.28824934 0.33100003
0.018649621 0.2891202 0.33200002
0.019444207 0.2891202 0.33200002
0.020299751 0.28999102 0.333
0.021096731 0.28999102 0.333
0.021893712 0.28999102 0.333
0.022690693 0.28999102 0.333
0.023558205 0.29086187 0.33400002
0.024430506 0.2917327 0.33500001
0.02523227 0.2917327 0.33500001
0.026111752 0.29260358 0.33600003
0.026915913 0.29260358 0.33600003
0.027720071 0.29260358 0.33600003
0.028524231 0.29260358 0.33600003
0.029415675 0.29347441 0.33700001
0.03031191 0.29434526 0.33800003
0.031120855 0.29434526 0.33800003
0.032024268 0.29521608 0.33900002
0.03283561 0.29521608 0.33900002
0.033646949 0.29521608 0.33900002
0.034458287 0.29521608 0.33900002
0.035373665 0.29608694 0.34
0.036293834 0.29695779 0.34100002
0.037109964 0.29695779 0.34100002
0.037926085 0.29695779 0.34100002
0.038742214 0.29695779 0.34100002
0.03955834 0.29695779 0.34100002
0.040492866 0.29782861 0.34200001
0.041311387 0.29782861 0.34200001
0.042253092 0.29869947 0.34300002
0.043074004 0.29869947 0.34300002
0.044022888 0.29957032 0.34400001
0.044846196 0.29957032 0.34400001
0.045802265 0.30044118 0.34500003
0.046627969 0.30044118 0.34500003
0.047453664 0.30044118 0.34500003
0.0484193 0.301312 0.34600002
0.049247395 0.301312 0.34600002
0.050220214 0.30218282 0.347
0.0510507 0.30218282 0.347
0.051881183 0.30218282 0.347
0.052711673 0.30218282 0.347
0.053542159 0.30218282 0.347
0.0666513 0.3213414 0.36900002
0.067534439 0.3213414 0.36900002
0.068417579 0.3213414 0.36900002
0.069300719 0.3213414 0.36900002
0.070183858 0.3213414 0.36900002
0.071066998 0.3213414 0.36900002
0.071950138 0.3213414 0.36900002
0.073030651 0.32221225 0.37
0.073916189 0.32221225 0.37
0.074801721 0.32221225 0.37
0.075687252 0.32221225 0.37
0.076572791 0.32221225 0.37
0.077458315 0.32221225 0.37
0.078343853 0.32221225 0.37
0.079229385 0.32221225 0.37
0.080114916 0.32221225 0.37
0.081000455 0.32221225 0.37
0.081885979 0.32221225 0.37
0.082771517 0.32221225 0.37
0.083657049 0.32221225 0.37
0.084542587 0.32221225 0.37
0.085428119 0.32221225 0.37
0.08631365 0.32221225 0.37
0.087199181 0.32221225 0.37
0.088322788 0.3230831 0.37100002
0.089210711 0.3230831 0.37100002
0.090098642 0.3230831 0.37100002
0.090986565 0.3230831 0.37100002
0.091874488 0.3230831 0.37100002
0.092762411 0.3230831 0.37100002
0.093650341 0.3230831 0.37100002
0.094538264 0.3230831 0.37100002
0.095683403 0.32395393 0.37200001
0.096573725 0.32395393 0.37200001
0.097464047 0.32395393 0.37200001
0.098354362 0.32395393 0.37200001
0.099244684 0.32395393 0.37200001
0.10013501 0.32395393 0.37200001
0.10102533 0.32395393 0.37200001
0.10191564 0.32395393 0.37200001
0.10280596 0.32395393 0.37200001
0.10369628 0.32395393 0.37200001
0.1045866 0.32395393 0.37200001
0.10547692 0.32395393 0.37200001
0.10636724 0.32395393 0.37200001
0.10725756 0.32395393 0.37200001
0.10814788 0.32395393 0.37200001
0.1090382 0.32395393 0.37200001
0.10992853 0.32395393 0.37200001
0.11081883 0.32395393 0.37200001
0.11170916 0.32395393 0.37200001
0.11259948 0.32395393 0.37200001
0.11348979 0.32395393 0.37200001
0.11468759 0.32482478 0.37300003
0.11558031 0.32482478 0.37300003
0.11647302 0.32482478 0.37300003
-0.059739877 0.31349221 0.35900003
-0.058880672 0.31349221 0.35900003
-0.058021463 0.31349221 0.35900003
-0.057162262 0.31349221 0.35900003
-0.056303054 0.31349221 0.35900003
-0.055598285 0.31436542 0.36000001
-0.054736685 0.31436542 0.36000001
-0.053875081 0.31436542 0.36000001
-0.053013489 0.31436542 0.36000001
-0.052151889 0.31436542 0.36000001
-0.051290285 0.31436542 0.36000001
-0.050428685 0.31436542 0.36000001
-0.049567085 0.31436542 0.36000001
-0.048705488 0.31436542 0.36000001
-0.047843888 0.31436542 0.36000001
-0.046982288 0.31436542 0.36000001
-0.046120688 0.31436542 0.36000001
-0.045259088 0.31436542 0.36000001
-0.044520818 0.31523868 0.36100003
-0.035488818 0.29078799 0.333
-0.03469184 0.29078799 0.333
-0.033894859 0.29078799 0.333
-0.033097882 0.29078799 0.333
-0.032203905 0.28991479 0.33200002
-0.031409316 0.28991479 0.33200002
-0.03061473 0.28991479 0.33200002
-0.029820144 0.28991479 0.33200002
-0.029025557 0.28991479 0.33200002
-0.028230973 0.28991479 0.33200002
-0.027436385 0.28991479 0.33200002
-0.026641797 0.28991479 0.33200002
-0.025847213 0.28991479 0.33200002
-0.024977166 0.28904155 0.33100003
-0.024184976 0.28904155 0.33100003
-0.023392782 0.28904155 0.33100003
-0.022600587 0.28904155 0.33100003
-0.021742508 0.28816831 0.33000001
-0.020952707 0.28816831 0.33000001
-0.020162908 0.28816831 0.33000001
-0.01937311 0.28816831 0.33000001
-0.018583309 0.28816831 0.33000001
-0.01779351 0.28816831 0.33000001
-0.017003711 0.28816831 0.33000001
-0.016164778 0.28729507 0.32900003
